ply
format ascii 1.0
element vertex 1474
property float x
property float y
property float z
property uchar red
property uchar green
property uchar blue
end_header
1223.52 469.67 195.04 255 128 0
1259.70 439.87 198.57 255 128 0
1271.00 412.99 198.89 255 128 0
1273.18 383.19 197.87 255 128 0
1274.06 365.33 197.24 255 128 0
830.86 214.88 127.72 255 128 0
837.82 189.56 127.84 255 128 0
842.75 163.82 127.77 255 128 0
845.14 137.65 127.44 255 128 0
854.37 116.26 128.32 255 128 0
1288.04 158.15 193.12 255 128 0
977.79 102.77 146.31 255 128 0
1289.79 107.17 192.61 255 128 0
1273.57 77.89 189.88 255 128 0
1123.49 44.14 167.33 255 128 0
1128.18 29.54 167.95 255 128 0
1203.56 21.01 179.14 255 128 0
1312.55 0.00 195.33 255 128 0
910.25 -19.86 135.50 255 128 0
987.10 -38.83 147.01 255 128 0
997.59 -65.39 148.78 255 128 0
999.01 -83.01 149.18 255 128 0
1005.23 -96.79 150.29 255 128 0
1043.68 -118.91 156.32 255 128 0
1073.04 -131.75 160.89 255 128 0
987.32 -138.76 148.37 255 128 0
902.68 -142.97 136.01 255 128 0
864.88 -160.35 130.91 255 128 0
861.66 -187.11 131.23 255 128 0
865.64 -211.82 132.62 255 128 0
992.38 -261.24 152.72 255 128 0
955.77 -269.56 147.79 255 128 0
957.55 -288.20 148.82 255 128 0
957.55 -306.52 149.63 255 128 0
959.57 -321.07 150.58 255 128 0
951.95 -337.10 150.29 255 128 0
886.57 -335.86 141.09 255 128 0
870.59 -342.93 139.25 255 128 0
872.05 -361.25 140.48 255 128 0
875.89 -394.57 142.97 255 128 0
878.93 -414.55 144.62 255 128 0
882.53 -440.01 146.76 255 128 0
897.53 -467.22 150.58 255 128 0
898.29 -482.68 151.76 255 128 0
892.23 -509.94 152.94 255 128 0
892.73 -525.86 154.19 255 128 0
1082.68 -650.54 187.97 255 128 0
1035.20 -653.12 182.16 255 128 0
1001.66 -650.49 177.74 255 128 0
964.33 -650.45 173.10 255 128 0
939.49 -651.70 170.16 255 128 0
908.32 -647.90 166.04 255 128 0
905.72 -664.13 167.14 255 128 0
907.38 -690.01 169.64 255 128 0
908.81 -710.04 171.63 255 128 0
1011.97 -819.48 193.79 255 128 0
1004.38 -835.33 194.41 255 128 0
987.41 -850.78 193.97 255 128 0
940.82 -854.56 189.15 255 128 0
926.62 -879.33 190.11 255 128 0
1063.64 -1036.12 220.98 255 191 0
1007.61 -1016.43 212.99 255 128 0
951.82 -1020.70 207.70 255 128 0
963.30 -1088.83 216.36 255 128 0
952.32 -1115.02 218.22 255 128 0
960.71 -1165.44 224.77 255 255 0
954.02 -1210.19 229.33 255 255 0
939.93 -1224.93 229.77 255 255 0
936.05 -1265.01 234.19 255 255 0
941.26 -1295.53 238.31 255 255 0
1157.92 -1653.68 300.43 255 255 0
1116.16 -1654.77 297.04 255 255 0
1087.09 -1658.05 295.06 255 255 0
1055.98 -1657.56 292.48 255 255 0
1019.14 -1663.09 290.27 255 255 0
990.71 -1665.22 288.36 255 255 0
1134.85 -2005.84 342.97 255 255 0
1113.47 -2008.75 341.79 255 255 0
1068.49 -2009.53 338.70 255 255 0
1037.11 -2013.65 337.08 255 255 0
979.71 -2008.70 332.59 255 255 0
964.06 -2021.19 333.25 255 255 0
938.63 -2036.10 333.66 255 255 0
573.02 -3091.72 467.94 0 255 0
517.83 -3094.42 466.91 0 255 0
463.31 -3100.05 466.47 0 255 0
408.87 -3105.70 466.17 0 255 0
381.64 -3108.17 466.03 0 255 0
327.44 -3115.34 466.17 0 255 0
198.85 -2843.66 424.22 255 255 0
149.63 -2855.10 425.47 255 255 0
124.88 -2860.25 426.06 255 255 0
-27.45 -3145.24 468.09 0 255 0
-54.95 -3147.85 468.53 0 255 0
-110.19 -3155.31 469.85 0 255 0
-165.96 -3166.73 471.91 0 255 0
-222.17 -3177.17 473.98 0 255 0
-306.21 -3180.11 475.45 0 255 0
-362.90 -3185.09 477.07 0 255 0
-419.33 -3185.14 478.10 0 255 0
-476.17 -3186.14 479.42 0 255 0
-504.89 -3187.72 480.30 0 255 0
-562.33 -3189.14 481.92 0 255 0
-620.73 -3193.40 484.13 0 255 0
-680.07 -3199.50 486.78 0 255 0
-711.29 -3208.41 489.06 0 255 0
-773.29 -3220.99 492.96 0 255 0
-834.09 -3225.20 495.76 0 255 0
-893.43 -3221.59 497.53 0 255 0
-923.96 -3222.23 498.85 0 255 0
-987.00 -3228.32 502.38 0 255 0
-808.44 -1657.55 274.45 255 255 0
-820.85 -1611.02 269.08 255 255 0
-841.06 -1565.26 264.44 255 255 0
-853.82 -1509.11 258.04 255 255 0
-859.19 -1458.61 251.93 255 255 0
-862.29 -1407.13 245.60 255 255 0
-863.79 -1382.36 242.58 255 255 0
-865.16 -1332.23 236.40 255 255 0
-865.88 -1283.72 230.44 255 255 0
-868.30 -1240.06 225.29 255 255 0
-872.86 -1212.54 222.34 255 255 0
-874.87 -1182.31 218.88 255 128 0
-876.40 -1142.15 214.25 255 128 0
-877.46 -1113.11 210.93 255 128 0
-880.79 -1087.68 208.28 255 128 0
-882.59 -1061.24 205.41 255 128 0
-883.49 -1016.34 200.41 255 128 0
-883.85 -990.31 197.54 255 128 0
-887.74 -960.39 194.63 255 128 0
-893.94 -933.85 192.39 255 128 0
-892.24 -907.95 189.44 255 128 0
-893.49 -885.76 187.23 255 128 0
-896.56 -843.42 183.19 255 128 0
-900.07 -810.43 180.24 255 128 0
-901.09 -790.27 178.37 255 128 0
-902.48 -764.03 175.97 255 128 0
-909.83 -736.78 174.23 255 128 0
-916.77 -709.86 172.55 255 128 0
-918.12 -685.61 170.53 255 128 0
-920.32 -662.55 168.76 255 128 0
-922.40 -639.90 167.07 255 128 0
-923.74 -623.07 165.82 255 128 0
-923.99 -594.35 163.50 255 128 0
-926.05 -578.66 162.51 255 128 0
-927.61 -562.90 161.48 255 128 0
-929.93 -536.93 159.81 255 128 0
-931.33 -510.96 158.09 255 128 0
-933.90 -486.18 156.69 255 128 0
-939.88 -463.49 155.96 255 128 0
-1002.21 -467.34 164.57 255 128 0
-1059.92 -471.91 172.66 255 128 0
-1091.21 -474.47 177.08 255 128 0
-1158.26 -479.77 186.57 255 128 0
-1245.14 -490.47 199.16 255 128 0
-1022.82 -382.42 162.51 255 128 0
-1033.79 -371.14 163.46 255 128 0
-1080.23 -361.45 169.52 255 128 0
-1082.76 -336.20 168.72 255 128 0
-1093.54 -313.57 169.30 255 128 0
-1092.80 -287.73 168.17 255 128 0
-1091.58 -262.09 167.07 255 128 0
-1088.37 -236.31 165.74 255 128 0
-1090.33 -211.94 165.30 255 128 0
-1092.76 -187.78 165.01 255 128 0
-1097.56 -164.03 165.16 255 128 0
-1103.11 -135.45 165.40 255 128 0
-1139.60 -109.69 170.38 255 128 0
-1145.68 -85.15 170.97 255 128 0
-1143.04 -64.90 170.38 255 128 0
-1144.66 -39.97 170.45 255 128 0
-1148.18 -20.04 170.90 255 128 0
-1155.75 -5.03 172.00 255 128 0
-1170.50 15.33 174.21 255 128 0
-1170.05 35.75 174.21 255 128 0
-1172.27 61.44 174.70 255 128 0
-1175.27 87.34 175.39 255 128 0
-1136.59 99.44 169.79 255 128 0
-1071.24 112.59 160.30 255 128 0
-1153.04 156.92 173.18 255 128 0
-1184.16 187.60 178.43 255 128 0
-1205.96 223.51 182.52 255 128 0
-1122.40 218.17 170.16 255 128 0
-1084.56 230.53 165.01 255 128 0
-1269.75 293.14 193.93 255 128 0
-1273.48 311.62 195.11 255 128 0
-1274.57 329.63 195.92 255 128 0
-1276.82 360.10 197.43 255 128 0
-1255.17 371.80 194.82 255 128 0
-1188.59 374.76 185.47 255 128 0
-1126.53 376.93 176.78 255 128 0
-1099.82 378.70 173.10 255 128 0
-1043.78 379.90 165.30 255 128 0
-1009.12 382.29 160.59 255 128 0
-963.48 384.35 154.37 255 128 0
-935.75 387.60 150.73 255 128 0
-965.12 419.65 156.62 255 128 0
-970.13 437.02 158.35 255 128 0
-971.28 463.31 160.15 255 128 0
-972.89 490.39 162.14 255 128 0
-976.22 513.62 164.16 255 128 0
-977.51 536.29 165.93 255 128 0
-976.25 575.05 168.61 255 128 0
-973.06 590.48 169.39 255 128 0
-973.52 620.20 171.78 255 128 0
-974.92 645.28 173.99 255 128 0
-978.22 666.07 176.12 255 128 0
-979.57 685.90 177.96 255 128 0
-983.74 708.19 180.39 255 128 0
-955.78 713.71 177.52 255 128 0
-951.76 736.97 179.14 255 128 0
-953.41 765.22 181.94 255 128 0
-953.64 786.12 183.92 255 128 0
-956.46 809.72 186.50 255 128 0
-1320.91 1148.25 260.47 255 255 0
-1323.46 1191.65 265.03 255 255 0
-1343.33 1252.68 273.35 255 255 0
-1344.83 1287.43 277.06 255 255 0
-1348.17 1324.85 281.29 255 255 0
-1355.35 1379.22 287.77 255 255 0
-1239.16 1305.80 267.90 255 255 0
-1033.09 1127.41 227.57 255 255 0
-1019.81 1152.68 229.04 255 255 0
-1130.41 1300.38 256.42 255 255 0
-1093.22 1314.45 254.43 255 255 0
-1076.86 1329.82 254.65 255 255 0
-1057.41 1365.70 257.04 255 255 0
-1037.55 1415.03 261.13 255 255 0
-1024.69 1436.56 262.60 255 255 0
-1014.54 1490.03 268.27 255 255 0
-987.85 1492.48 266.35 255 255 0
-966.44 1488.19 264.07 255 255 0
-940.55 1490.64 262.31 255 255 0
-887.42 1491.60 258.29 255 255 0
-861.51 1492.18 256.42 255 255 0
-841.64 1487.59 254.36 255 255 0
-815.92 1487.18 252.44 255 255 0
-765.16 1485.61 248.69 255 255 0
-741.45 1487.11 247.29 255 255 0
-716.56 1485.53 245.45 255 255 0
-683.78 1483.22 243.06 255 255 0
-660.39 1483.25 241.62 255 255 0
-637.41 1483.57 240.30 255 255 0
-590.67 1480.45 237.21 255 255 0
-551.46 1474.94 234.34 255 255 0
-515.89 1477.26 232.87 255 255 0
-494.00 1476.40 231.69 255 255 0
-478.80 1473.60 230.58 255 255 0
-442.98 1471.84 228.74 255 255 0
-414.48 1469.59 227.24 255 255 0
-386.93 1469.67 226.17 255 255 0
-358.71 1465.86 224.59 255 255 0
-332.25 1468.29 224.03 255 255 0
-291.67 1466.29 222.49 255 255 0
-264.54 1462.89 221.24 255 255 0
-238.14 1462.16 220.46 255 191 0
-211.55 1458.99 219.40 255 128 0
-109.91 863.94 129.61 255 128 0
-89.82 854.30 127.84 255 128 0
-66.35 842.73 125.80 255 128 0
-36.21 828.54 123.42 255 128 0
158.86 661.70 101.27 255 128 0
451.99 798.89 136.60 255 128 0
882.72 1150.39 215.79 255 128 0
966.71 1152.08 223.81 255 255 0
657.35 756.19 149.11 255 128 0
1081.34 800.15 200.19 255 128 0
1153.77 807.88 209.61 255 128 0
756.16 385.28 126.30 255 128 0
1261.71 497.00 201.81 255 128 0
1279.11 354.73 197.54 255 128 0
1265.78 144.22 189.59 255 128 0
1130.76 108.88 169.06 255 128 0
1292.57 90.39 192.83 255 128 0
1129.00 59.17 168.25 255 128 0
1296.67 11.32 192.98 255 128 0
1311.01 -11.44 195.11 255 128 0
1013.20 -106.49 151.61 255 128 0
1042.43 -137.24 156.47 255 128 0
956.72 -142.98 143.96 255 128 0
871.16 -145.78 131.45 255 128 0
976.37 -336.19 153.67 255 128 0
931.32 -338.97 147.49 255 128 0
874.42 -380.21 141.90 255 128 0
895.84 -456.45 149.63 255 128 0
902.29 -500.15 153.53 255 128 0
1062.62 -651.18 185.47 255 128 0
986.05 -652.65 175.97 255 128 0
914.97 -727.80 173.99 255 128 0
924.85 -862.44 188.19 255 128 0
1021.97 -1076.93 220.94 255 255 0
968.60 -1057.04 213.36 255 128 0
946.05 -1127.46 219.03 255 128 0
966.07 -1192.99 228.45 255 255 0
942.55 -1321.41 241.55 255 255 0
1135.60 -1652.31 298.37 255 255 0
1035.71 -1657.49 290.86 255 255 0
1089.76 -2007.09 339.88 255 255 0
1000.73 -2007.16 333.77 255 255 0
923.09 -2073.30 337.74 255 255 0
544.81 -3089.78 466.91 0 255 0
490.80 -3098.82 466.91 0 255 0
435.96 -3102.02 466.17 0 255 0
354.61 -3112.37 466.17 0 255 0
300.14 -3117.10 466.03 0 255 0
223.69 -2842.31 424.30 255 255 0
-82.47 -3149.23 468.82 0 255 0
-137.93 -3159.17 470.59 0 255 0
-278.40 -3182.17 475.37 0 255 0
-334.57 -3183.22 476.33 0 255 0
-391.10 -3185.24 477.58 0 255 0
-533.17 -3186.12 480.75 0 255 0
-591.04 -3188.97 482.66 0 255 0
-741.59 -3212.20 490.61 0 255 0
-803.29 -3221.80 494.14 0 255 0
-954.01 -3220.68 499.88 0 255 0
-800.97 -1679.27 276.88 255 255 0
-850.68 -1534.67 261.13 255 255 0
-856.07 -1482.76 254.80 255 255 0
-864.93 -1357.67 239.56 255 255 0
-866.11 -1308.55 233.53 255 255 0
-877.11 -1163.97 216.90 255 128 0
-884.55 -1035.67 202.69 255 128 0
-899.16 -823.93 181.49 255 128 0
-925.43 -612.53 165.16 255 128 0
-1126.26 -478.07 182.08 255 128 0
-1202.30 -485.76 192.98 255 128 0
-1121.14 137.66 168.10 255 128 0
-1078.78 219.48 163.83 255 128 0
-1275.46 341.76 196.51 255 128 0
-972.23 561.32 167.07 255 128 0
-613.95 1482.21 238.75 255 255 0
-312.17 1468.65 223.45 255 255 0
346.88 711.20 117.76 255 128 0
485.99 808.83 140.43 255 128 0
1033.72 963.96 210.34 255 128 0
1251.54 766.94 218.44 255 128 0
1232.46 448.58 195.18 255 128 0
939.85 -49.26 140.06 255 128 0
872.11 -425.36 144.40 255 128 0
174.15 -2847.26 424.52 255 255 0
-250.43 -3182.01 475.01 0 255 0
-447.94 -3187.23 478.98 0 255 0
-650.16 -3195.62 485.31 0 255 0
-864.26 -3225.44 496.94 0 255 0
-827.12 -1588.88 266.57 255 255 0
-860.42 -1431.99 248.62 255 255 0
-868.37 -1263.48 228.16 255 255 0
-895.78 -865.05 185.32 255 128 0
-965.07 -460.31 159.12 255 128 0
-1027.86 -468.42 168.10 255 128 0
-1288.16 -494.48 205.34 255 128 0
-1082.51 113.79 161.99 255 128 0
-1140.65 201.13 172.37 255 128 0
-1191.63 264.18 181.64 255 128 0
-1214.52 371.32 189.00 255 128 0
-1152.35 374.42 180.32 255 128 0
-1067.10 377.88 168.47 255 128 0
-945.08 401.16 152.79 255 128 0
-978.38 553.54 167.29 255 128 0
-975.54 609.58 171.19 255 128 0
-975.53 633.52 173.10 255 128 0
-1319.73 1167.60 262.23 255 255 0
-1340.35 1228.21 270.55 255 255 0
-1348.07 1395.97 288.80 255 255 0
-1208.15 1295.59 263.63 255 255 0
-1022.21 1135.28 227.35 255 255 0
-1114.52 1304.93 255.39 255 255 0
-1041.41 1381.99 257.52 255 255 0
-1029.70 1470.57 267.16 255 255 0
-913.97 1491.47 260.32 255 255 0
-790.80 1487.28 250.68 255 255 0
-567.14 1477.46 235.52 255 255 0
-537.21 1475.98 233.75 255 255 0
-464.59 1473.48 229.92 255 255 0
-50.75 829.79 123.72 255 128 0
169.18 678.53 104.07 255 128 0
963.78 -852.68 191.50 255 128 0
935.15 -1240.99 231.25 255 255 0
-1346.70 1346.70 283.43 255 255 0
-194.01 -3172.07 472.94 0 255 0
-811.84 -1628.30 270.77 255 255 0
1019.59 984.60 210.93 255 128 0
-1068.91 1343.81 255.53 255 255 0
-17.89 819.77 122.03 255 128 0
14.68 1121.39 233.27 255 128 0
34.28 1121.94 233.47 255 128 0
37.44 535.76 111.72 255 128 0
54.74 543.55 113.63 255 128 0
68.51 557.77 116.89 255 128 0
84.93 568.05 119.47 255 128 0
97.03 579.85 122.28 255 128 0
106.74 590.17 134.62 255 128 0
120.64 606.38 128.60 255 128 0
143.71 635.00 135.42 255 128 0
162.92 665.68 142.55 255 128 0
194.61 726.29 156.39 255 128 0
212.11 727.58 157.64 255 128 0
234.02 660.94 145.84 255 128 0
244.75 637.68 142.07 255 128 0
262.94 612.17 138.59 255 128 0
285.13 584.71 135.32 255 128 0
297.01 570.55 133.79 255 128 0
310.39 559.98 133.18 255 128 0
329.88 554.48 134.20 255 128 0
336.59 533.40 131.19 255 128 0
360.10 538.88 134.81 255 128 0
769.80 1079.21 275.73 255 128 0
790.52 1078.11 278.07 255 128 0
810.75 1075.90 280.21 255 128 0
841.15 1076.63 284.18 255 128 0
871.21 1075.86 287.94 255 128 0
908.08 1072.64 292.32 255 128 0
652.91 738.03 204.96 255 128 0
666.23 720.73 204.15 255 128 0
688.42 725.44 208.02 255 128 0
686.22 710.61 205.47 255 128 0
710.64 716.84 209.95 255 128 0
761.31 722.39 218.30 255 128 0
1047.71 943.36 293.24 255 128 0
1042.20 882.30 284.02 255 128 0
1046.31 862.51 282.04 255 128 0
1055.82 832.35 279.65 255 128 0
1065.90 810.55 278.53 255 128 0
1086.83 796.84 280.31 255 128 0
1155.66 809.20 293.44 255 128 0
1210.29 831.81 305.46 255 255 0
1220.65 815.62 305.36 255 191 0
1227.29 789.42 303.52 255 128 0
1228.79 753.00 299.76 255 128 0
1233.89 734.11 298.64 255 128 0
1231.97 711.28 295.89 255 128 0
1233.90 691.03 294.16 255 128 0
1242.33 667.52 293.34 255 128 0
736.34 379.24 172.28 255 128 0
1241.14 533.20 280.97 255 128 0
1247.29 510.30 280.31 255 128 0
1265.27 466.78 280.51 255 128 0
1259.35 439.80 277.46 255 128 0
1258.93 415.14 275.73 255 128 0
1260.38 391.36 274.50 255 128 0
1264.21 362.51 273.55 255 128 0
822.72 212.77 176.76 255 128 0
831.88 184.42 177.23 255 128 0
834.66 162.24 176.86 255 128 0
836.55 136.25 176.30 255 128 0
843.50 114.78 177.06 255 128 0
912.96 112.10 191.32 255 128 0
969.79 101.93 202.82 255 128 0
1267.92 110.93 264.73 255 128 0
1277.96 89.36 266.46 255 128 0
1257.68 76.92 262.08 255 128 0
1112.47 38.85 231.54 255 128 0
1281.52 11.18 266.56 255 128 0
1268.31 -11.07 263.81 255 128 0
1247.11 -21.77 259.44 255 128 0
905.38 -39.53 188.50 255 128 0
985.73 -64.61 205.47 255 128 0
988.11 -82.11 206.23 255 128 0
1003.78 -96.65 209.75 255 128 0
1014.58 -111.13 212.29 255 128 0
1058.86 -134.71 222.02 255 128 0
969.26 -144.86 203.84 255 128 0
911.39 -144.35 191.93 255 128 0
856.26 -162.58 181.29 255 128 0
851.63 -188.82 181.44 255 128 0
853.98 -208.98 182.87 255 128 0
908.53 -234.96 195.19 255 128 0
952.87 -264.26 205.67 255 128 0
949.35 -290.26 206.49 255 128 0
951.17 -313.66 208.32 255 128 0
956.64 -334.09 210.77 255 128 0
937.94 -341.38 207.61 255 128 0
906.96 -339.10 201.40 255 128 0
862.51 -344.11 193.15 255 128 0
863.14 -361.96 194.68 255 128 0
866.05 -385.62 197.19 255 128 0
868.52 -423.61 200.99 255 128 0
975.27 -496.93 227.67 255 128 0
950.03 -505.14 223.80 255 128 0
928.80 -504.30 219.83 255 128 0
886.44 -511.77 212.90 255 128 0
885.11 -537.11 215.35 255 128 0
885.54 -558.75 217.79 255 128 0
888.34 -582.44 220.95 255 128 0
892.83 -602.22 224.00 255 128 0
1081.08 -756.98 274.50 255 128 0
1083.54 -787.24 278.58 255 128 0
980.62 -725.62 253.73 255 128 0
972.58 -739.58 254.14 255 128 0
970.68 -765.22 257.09 255 128 0
958.31 -782.98 257.40 255 128 0
999.74 -838.88 271.45 255 128 0
988.87 -852.03 271.50 255 128 0
941.40 -855.08 264.53 255 128 0
917.40 -863.01 261.98 255 128 0
926.65 -910.62 270.23 255 128 0
912.58 -920.57 269.62 255 128 0
879.48 -926.78 265.75 255 128 0
872.69 -935.85 266.16 255 128 0
959.61 -1103.91 304.24 255 128 0
943.49 -1114.50 303.73 255 128 0
961.20 -1197.59 319.41 255 255 0
936.92 -1221.02 320.12 255 255 0
924.79 -1249.78 323.38 255 255 0
934.67 -1310.36 334.78 255 255 0
1155.69 -1650.49 419.09 255 255 0
1117.95 -1657.42 415.83 255 255 0
1087.04 -1657.97 412.37 255 255 0
1039.19 -1663.05 407.89 255 255 0
988.90 -1662.16 402.29 255 255 0
1051.95 -1859.32 444.34 255 255 0
1092.92 -2012.91 476.41 255 255 0
1038.45 -2016.23 471.73 255 255 0
983.69 -2016.87 466.74 255 255 0
961.05 -2037.75 468.62 255 255 0
545.73 -3094.99 653.68 0 255 0
493.01 -3112.75 655.51 0 255 0
437.93 -3116.03 654.49 0 255 0
410.72 -3119.73 654.49 0 255 0
356.21 -3126.43 654.49 0 255 0
301.59 -3132.17 654.49 0 255 0
246.85 -3136.47 654.39 0 255 0
219.64 -3140.94 654.90 0 255 0
164.84 -3145.28 655.10 0 255 0
110.09 -3152.57 656.12 0 255 0
55.13 -3158.41 657.04 0 255 0
27.59 -3161.71 657.65 0 255 0
-27.65 -3168.07 658.97 0 255 0
-83.01 -3170.04 659.58 0 255 0
-138.58 -3173.98 660.81 0 255 0
-166.43 -3175.58 661.42 0 255 0
-277.58 -3172.72 662.44 0 255 0
-333.83 -3176.15 664.27 0 255 0
-390.34 -3179.08 666.20 0 255 0
-418.52 -3178.95 666.92 0 255 0
-475.96 -3184.71 669.77 0 255 0
-533.65 -3188.96 672.52 0 255 0
-593.41 -3201.78 677.30 0 255 0
-623.85 -3209.45 680.05 0 255 0
-683.03 -3213.40 683.31 0 255 0
-957.93 -3233.92 701.53 0 255 0
-1021.58 -3240.05 706.62 0 255 0
-1086.05 -3245.87 711.92 0 255 0
-1118.80 -3249.23 714.77 0 255 0
-1196.10 -3286.25 727.40 0 255 0
-1229.76 -3203.63 713.75 0 255 0
-886.23 -1504.52 363.19 255 255 0
-876.29 -1429.97 348.83 255 255 0
-844.03 -1324.87 326.74 255 255 0
-859.19 -1298.10 323.78 255 255 0
-859.27 -1262.06 317.57 255 255 0
-861.43 -1230.25 312.38 255 255 0
-864.07 -1189.29 305.76 255 255 0
-866.50 -1160.42 301.23 255 128 0
-870.99 -1114.82 294.26 255 128 0
-870.77 -1085.00 289.37 255 128 0
-868.74 -1053.86 284.08 255 128 0
-865.22 -1022.02 278.53 255 128 0
-879.04 -993.57 275.93 255 128 0
-877.79 -966.40 271.55 255 128 0
-878.75 -934.18 266.77 255 128 0
-882.09 -913.43 264.12 255 128 0
-882.24 -889.99 260.66 255 128 0
-885.37 -862.50 257.09 255 128 0
-886.73 -834.18 253.22 255 128 0
-890.38 -815.88 251.19 255 128 0
-894.70 -784.64 247.52 255 128 0
-897.83 -766.82 245.59 255 128 0
-904.48 -739.00 242.94 255 128 0
-906.47 -714.62 240.09 255 128 0
-909.07 -691.28 237.54 255 128 0
-912.02 -662.66 234.49 255 128 0
-913.22 -633.53 231.18 255 128 0
-914.57 -611.10 228.79 255 128 0
-916.24 -589.35 226.60 255 128 0
-917.94 -562.54 223.93 255 128 0
-920.36 -536.74 221.61 255 128 0
-922.19 -511.20 219.32 255 128 0
-923.62 -485.94 217.08 255 128 0
-928.03 -467.76 216.16 255 128 0
-963.18 -464.54 222.42 255 128 0
-1030.76 -469.75 235.61 255 128 0
-1070.60 -476.66 243.75 255 128 0
-1138.69 -483.34 257.30 255 128 0
-1213.67 -490.35 272.26 255 128 0
-1148.46 -440.85 255.87 255 128 0
-1015.17 -379.56 225.43 255 128 0
-1060.40 -375.51 233.98 255 128 0
-1127.14 -377.14 247.22 255 128 0
-1080.63 -335.54 235.35 255 128 0
-1086.02 -311.43 235.00 255 128 0
-1083.11 -285.17 232.96 255 128 0
-1081.50 -264.66 231.59 255 128 0
-1077.52 -238.89 229.57 255 128 0
-1079.56 -209.85 228.75 255 128 0
-1082.13 -185.95 228.38 255 128 0
-1087.37 -162.50 228.69 255 128 0
-1091.15 -138.81 228.79 255 128 0
-1121.68 -117.89 234.59 255 128 0
-1133.79 -89.26 236.56 255 128 0
-1134.35 -64.41 236.32 255 128 0
-1133.34 -39.57 235.88 255 128 0
-1142.80 -9.94 237.71 255 128 0
-1160.06 15.19 241.31 255 128 0
-1160.35 35.46 241.46 255 128 0
-1161.81 60.89 241.99 255 128 0
-1162.58 86.39 242.48 255 128 0
-1061.61 111.57 222.03 255 128 0
-1110.45 146.19 232.96 255 128 0
-1168.50 169.43 245.59 255 128 0
-1165.85 189.86 245.69 255 128 0
-1165.24 210.74 246.30 255 128 0
-1091.76 212.22 231.33 255 128 0
-1066.84 217.05 226.45 255 128 0
-1196.23 265.20 254.85 255 128 0
-1261.00 308.57 270.02 255 128 0
-1264.18 332.84 271.91 255 128 0
-1263.36 356.31 273.03 255 128 0
-1200.29 366.97 261.06 255 128 0
-1139.70 370.31 249.25 255 128 0
-1088.63 374.85 239.48 255 128 0
-1056.71 374.20 233.17 255 128 0
-1006.92 376.47 223.59 255 128 0
-961.93 378.92 215.04 255 128 0
-933.74 386.78 210.22 255 128 0
-960.05 437.55 219.45 255 128 0
-961.62 463.84 222.07 255 128 0
-963.65 485.73 224.46 255 128 0
-963.82 512.51 227.06 255 128 0
-957.79 558.55 230.62 255 128 0
-930.73 564.78 226.45 255 128 0
-929.63 586.57 228.63 255 128 0
-931.53 610.76 231.69 255 128 0
-932.20 628.78 233.88 255 128 0
-1114.27 765.82 281.22 255 128 0
-1282.07 914.49 327.55 255 255 0
-1294.24 957.69 334.88 255 255 0
-1020.62 783.15 267.58 255 128 0
-1170.75 914.69 309.02 255 255 0
-1312.49 1062.83 351.28 255 255 0
-1314.18 1112.57 358.15 255 255 0
-1313.39 1141.71 361.97 255 255 0
-1307.45 1166.94 364.51 255 255 0
-1278.36 1171.40 360.64 255 255 0
-1235.35 1172.30 354.23 255 255 0
-1197.24 1176.53 349.14 255 255 0
-1156.63 1176.99 343.23 255 255 0
-1134.41 1174.72 339.67 255 255 0
-1095.37 1174.65 334.07 255 255 0
-1012.10 1133.98 316.15 255 255 0
-1014.40 1177.22 323.22 255 255 0
-962.31 1177.79 316.35 255 255 0
-936.78 1188.24 314.72 255 255 0
-885.28 1185.50 307.75 255 255 0
-859.46 1182.95 304.13 255 128 0
-825.49 1178.92 299.35 255 128 0
-794.39 1177.73 295.48 255 128 0
-762.51 1174.17 291.20 255 128 0
-738.46 1170.37 287.84 255 128 0
-709.54 1169.27 284.48 255 128 0
-687.71 1167.51 281.84 255 128 0
-666.80 1166.61 279.49 255 128 0
-638.67 1164.13 276.18 255 128 0
-610.97 1161.23 272.93 255 128 0
-584.22 1159.04 269.97 255 128 0
-558.27 1157.38 267.28 255 128 0
-532.46 1154.94 264.53 255 128 0
-507.09 1152.41 261.88 255 128 0
-482.73 1151.15 259.64 255 128 0
-458.48 1149.17 257.35 255 128 0
-434.54 1146.93 255.11 255 128 0
-410.98 1144.66 252.97 255 128 0
-388.11 1143.32 251.14 255 128 0
-365.71 1142.46 249.51 255 128 0
-337.90 1140.68 247.45 255 128 0
-311.86 1143.86 246.61 255 128 0
-263.23 1140.10 243.38 255 128 0
-236.76 1138.24 241.82 255 128 0
-210.62 1136.38 240.39 255 128 0
-191.16 1142.33 240.90 255 128 0
-130.88 850.32 178.95 255 128 0
-112.87 857.41 179.88 255 128 0
-90.68 862.99 180.49 255 128 0
-88.72 1127.28 235.20 255 128 0
-63.73 1122.37 233.83 255 128 0
103.79 588.63 124.32 255 128 0
184.83 714.69 153.54 255 128 0
219.95 676.93 148.04 255 128 0
748.63 1089.26 274.91 255 128 0
824.87 1074.99 281.84 255 128 0
741.05 715.60 214.28 255 128 0
1035.66 908.25 286.52 255 128 0
1255.33 488.17 280.16 255 128 0
824.43 197.93 176.35 255 128 0
943.57 107.51 197.53 255 128 0
975.51 93.93 203.84 255 128 0
1150.76 60.31 239.68 255 128 0
899.44 -23.55 187.14 255 128 0
867.13 -145.11 182.87 255 128 0
887.97 -340.86 197.83 255 128 0
915.38 -507.40 217.69 255 128 0
924.00 -892.29 267.17 255 128 0
1011.33 -1103.68 311.36 255 255 0
953.87 -1220.90 322.26 255 255 0
1137.63 -1655.27 417.76 255 255 0
465.32 -3113.54 654.80 0 255 0
-362.20 -3178.96 665.49 0 255 0
-1056.17 -3250.57 710.90 0 255 0
-866.89 -1129.75 296.19 255 128 0
-875.47 -1007.11 277.56 255 128 0
-1005.33 -468.79 230.72 255 128 0
-1184.47 -490.62 266.66 255 128 0
-1260.26 -496.43 281.73 255 128 0
-1095.01 -355.79 239.48 255 128 0
-1101.16 -125.46 230.52 255 128 0
-1130.95 -108.90 236.32 255 128 0
-1140.15 99.75 238.05 255 128 0
-1062.12 130.41 222.58 255 128 0
-1086.93 231.04 231.13 255 128 0
-1257.31 290.27 268.40 255 128 0
-1239.12 367.04 268.80 255 128 0
-1168.57 368.45 254.85 255 128 0
-1111.36 371.86 243.75 255 128 0
-1034.08 376.38 228.89 255 128 0
-986.23 378.58 219.73 255 128 0
-949.92 413.04 215.45 255 128 0
-1285.19 899.90 326.33 255 255 0
-1283.54 932.55 330.00 255 255 0
-1025.07 772.45 266.97 255 128 0
-1310.22 1042.19 348.22 255 255 0
-1312.23 1081.72 353.72 255 255 0
-1259.85 1174.83 358.30 255 255 0
-1216.62 1174.88 351.78 255 255 0
-1174.12 1174.12 345.37 255 255 0
-1118.73 1178.89 338.04 255 255 0
-1045.73 1141.21 321.95 255 255 0
-990.55 1180.49 320.53 255 255 0
-842.57 1181.24 301.79 255 128 0
-810.73 1179.63 297.72 255 128 0
-777.60 1174.82 293.04 255 128 0
-290.05 1142.01 245.08 255 128 0
131.39 618.16 131.45 255 128 0
758.10 1082.68 274.91 255 128 0
854.17 1073.84 285.40 255 128 0
887.42 1076.52 290.18 255 128 0
1040.88 953.79 293.65 255 128 0
1049.23 849.65 280.82 255 128 0
1126.24 803.34 287.74 255 128 0
1236.28 772.52 303.22 255 128 0
1277.62 100.55 266.56 255 128 0
1190.34 20.78 247.62 255 128 0
1217.93 0.00 253.33 255 128 0
1011.21 -142.12 212.39 255 128 0
982.57 -263.28 211.58 255 128 0
948.65 -272.02 205.27 255 128 0
945.40 -471.36 219.73 255 128 0
966.12 -502.93 226.55 255 128 0
1075.54 -739.20 271.45 255 128 0
964.97 -853.74 267.99 255 128 0
889.91 -921.53 266.46 255 128 0
925.64 -1228.37 319.92 255 255 0
1057.87 -1660.52 409.52 255 255 0
966.32 -1673.71 401.98 255 255 0
1114.48 -2010.58 478.14 255 255 0
1003.00 -2011.71 467.55 255 255 0
573.25 -3093.00 654.29 0 255 0
383.42 -3122.71 654.39 0 255 0
192.28 -3143.72 655.10 0 255 0
0.00 -3163.30 657.96 0 255 0
-55.33 -3169.67 659.38 0 255 0
-194.25 -3175.97 661.82 0 255 0
-447.20 -3181.96 668.34 0 255 0
-653.11 -3210.12 681.37 0 255 0
-715.18 -3225.96 687.28 0 255 0
-928.05 -3236.51 700.31 0 255 0
-901.09 -1499.66 363.90 255 255 0
230.81 732.05 159.65 255 128 0
1015.68 -1657.44 404.32 255 255 0
1074.63 -2021.08 476.11 255 255 0
519.35 -3103.50 654.49 0 255 0
328.81 -3128.44 654.29 0 255 0
274.16 -3133.71 654.29 0 255 0
82.65 -3156.34 656.73 0 255 0
-110.81 -3173.11 660.40 0 255 0
-305.82 -3176.02 663.66 0 255 0
-504.80 -3187.21 671.19 0 255 0
-563.75 -3197.20 675.26 0 255 0
-754.31 -3267.29 697.46 0 255 0
-991.41 -3242.76 705.30 0 255 0
-1213.24 -3244.97 720.57 0 255 0
-838.15 -1341.31 328.98 255 255 0
-848.90 -1307.19 324.19 255 255 0
-861.33 -1207.54 308.51 255 255 0
-889.09 -800.54 248.85 255 128 0
-1114.67 -484.67 252.82 255 128 0
-1027.64 -374.03 227.46 255 128 0
-1104.37 -380.26 242.94 255 128 0
-960.12 537.71 228.89 255 128 0
-910.10 1186.07 310.96 255 255 0
864.69 -407.81 198.85 255 128 0
979.27 -1106.86 307.39 255 255 0
-221.92 -3173.66 661.72 0 255 0
-906.74 -760.85 246.20 255 128 0
1079.21 -769.80 275.73 255 128 0
967.13 -1173.22 316.25 255 255 0
931.11 -1281.56 329.49 255 255 0
137.47 -3148.55 655.51 0 255 0
-249.69 -3172.58 661.93 0 255 0
-899.51 -3243.54 700.11 0 255 0
920.10 -1021.88 286.01 255 128 0
-29.37 1121.60 233.37 255 128 0
-19.58 1121.82 233.37 255 128 0
6.43 487.82 117.68 255 96 0
19.67 500.49 120.82 255 128 0
33.41 509.00 123.05 255 128 0
37.54 513.83 133.09 255 128 0
59.01 538.11 136.17 255 128 0
72.71 552.26 134.36 255 128 0
84.58 565.63 137.96 255 128 0
169.04 890.35 218.60 255 128 0
189.19 890.00 219.48 255 128 0
213.78 890.41 220.89 255 128 0
238.70 890.77 222.45 255 128 0
263.87 890.74 224.09 255 128 0
289.30 890.30 225.81 255 128 0
315.48 890.83 227.96 255 128 0
338.21 892.69 230.27 255 128 0
360.53 892.29 232.14 255 128 0
412.63 884.83 235.50 255 128 0
432.54 886.84 238.00 255 128 0
294.81 566.37 154.02 255 128 0
303.92 553.98 152.42 255 128 0
312.79 537.49 157.66 255 128 0
319.42 531.62 149.60 255 128 0
335.37 511.59 147.57 255 128 0
348.68 493.40 145.73 255 128 0
361.28 483.76 145.65 255 128 0
381.11 483.43 148.49 255 128 0
641.53 744.54 237.07 255 128 0
660.44 733.48 238.08 255 128 0
677.57 726.60 239.64 255 128 0
692.40 723.28 241.52 255 128 0
714.34 720.57 244.74 255 128 0
733.93 721.23 248.20 255 128 0
782.30 716.85 255.94 255 128 0
862.77 763.31 277.87 255 128 0
1012.78 857.34 320.07 255 128 0
1050.87 850.98 326.17 255 128 0
1057.14 825.93 323.59 255 128 0
1062.42 807.90 321.95 255 128 0
1103.41 801.67 328.98 255 128 0
1133.31 808.38 335.78 255 128 0
1200.92 825.37 351.49 255 128 0
1209.47 800.53 349.85 255 128 0
1214.93 781.47 348.45 255 128 0
1211.87 757.26 344.69 255 128 0
1216.26 738.07 343.17 255 128 0
1217.62 710.11 340.00 255 128 0
1220.50 683.53 337.43 255 128 0
1233.54 662.78 337.78 255 128 0
1230.14 586.75 328.75 255 128 0
1236.92 563.70 327.89 255 128 0
1226.69 533.38 322.65 255 128 0
1236.38 512.12 322.81 255 128 0
1239.65 482.08 320.84 255 128 0
1236.27 425.68 315.38 255 128 0
1253.76 419.50 318.90 255 128 0
1249.14 387.87 315.50 255 128 0
1251.75 364.86 314.50 255 128 0
1257.14 348.64 314.68 255 128 0
814.29 210.59 211.51 255 128 0
819.71 190.74 213.39 255 128 0
827.90 179.76 204.35 255 128 0
829.23 161.19 203.77 255 128 0
828.11 138.58 211.15 255 128 0
832.88 118.52 209.82 255 128 0
888.65 109.11 215.96 255 128 0
958.27 92.26 232.22 255 128 0
1261.52 82.71 304.95 255 128 0
1199.89 62.88 289.82 255 128 0
1106.54 38.65 267.08 255 128 0
1245.24 10.87 300.38 255 128 0
1310.37 -11.44 316.09 255 128 0
895.50 -23.45 216.08 255 128 0
895.75 -31.28 216.20 255 128 0
978.53 -59.85 236.48 255 128 0
991.96 -86.83 240.19 255 128 0
1003.54 -109.92 243.51 255 128 0
1052.47 -138.56 256.06 255 128 0
941.62 -140.73 239.36 255 128 0
893.59 -149.54 218.54 255 128 0
853.06 -163.26 209.51 255 128 0
845.92 -187.55 209.01 255 128 0
847.63 -211.36 210.72 255 128 0
962.99 -267.06 241.05 255 128 0
945.29 -284.51 238.12 255 128 0
957.72 -301.97 242.22 255 128 0
1308.43 -437.79 332.81 255 128 0
1192.11 -433.89 306.00 255 128 0
1124.46 -431.64 290.53 255 128 0
1066.73 -430.99 277.51 255 128 0
1036.43 -429.30 270.60 255 128 0
994.01 -432.21 261.45 255 128 0
961.69 -433.16 254.42 255 128 0
916.39 -432.17 244.39 255 128 0
872.23 -444.42 236.13 255 128 0
871.60 -463.48 238.12 255 128 0
873.19 -484.02 240.82 255 128 0
883.11 -509.87 245.98 255 128 0
908.44 -556.69 257.00 255 128 0
1021.57 -650.81 292.17 255 128 0
1068.54 -713.98 309.99 255 128 0
1061.11 -736.13 311.51 255 128 0
1055.60 -759.93 313.74 255 128 0
1084.98 -817.59 327.69 255 128 0
958.20 -762.17 295.34 255 128 0
945.82 -786.66 296.74 255 128 0
949.14 -810.64 301.08 255 128 0
961.88 -858.48 310.99 255 128 0
940.34 -861.66 307.65 255 128 0
917.29 -862.90 303.78 255 128 0
916.06 -884.63 307.18 255 128 0
1014.59 -1014.59 346.10 255 128 0
1134.49 -1174.80 393.94 255 255 0
1133.56 -1194.53 397.22 255 255 0
1114.86 -1206.02 396.16 255 255 0
1063.52 -1212.69 389.07 255 255 0
1017.27 -1223.11 383.74 255 255 0
986.95 -1229.68 380.34 255 255 0
959.99 -1228.73 376.12 255 255 0
938.38 -1234.01 373.95 255 255 0
918.81 -1264.63 377.05 255 255 0
923.92 -1319.49 388.54 255 255 0
1139.77 -1658.38 485.39 255 255 0
1089.74 -1662.09 479.41 255 255 0
1058.74 -1661.89 475.30 255 255 0
1017.89 -1661.05 469.91 255 255 0
987.74 -1660.21 465.98 255 255 0
957.54 -1658.50 461.94 255 255 0
954.13 -1721.30 474.72 255 255 0
985.56 -1853.56 506.37 255 255 0
1005.03 -1930.65 525.01 255 255 0
974.71 -2043.51 546.12 255 255 0
1821.48 -4189.12 1101.85 0 255 0
1789.79 -4216.49 1104.90 0 255 0
1709.74 -4231.76 1100.91 0 255 0
1635.98 -4261.86 1101.15 0 255 0
1594.60 -4381.12 1124.59 0 255 0
1558.41 -4400.82 1126.12 0 255 0
1460.24 -4364.20 1110.06 0 255 0
1312.98 -4432.54 1115.10 0 255 0
1258.93 -4539.56 1136.32 0 255 0
1226.82 -4578.54 1143.35 0 255 0
1142.02 -4580.39 1138.66 0 255 0
579.47 -3126.56 767.00 0 255 0
523.21 -3126.61 764.66 0 255 0
468.28 -3133.34 764.19 0 255 0
413.46 -3140.55 764.07 0 255 0
385.98 -3143.56 763.96 0 255 0
331.16 -3150.78 764.19 0 255 0
276.46 -3159.96 765.13 0 255 0
221.47 -3167.21 765.83 0 255 0
166.47 -3176.42 767.24 0 255 0
138.79 -3178.72 767.47 0 255 0
83.01 -3169.97 764.89 0 255 0
27.75 -3179.68 767.00 0 255 0
-27.72 -3176.77 766.30 0 255 0
-55.52 -3180.78 767.36 0 255 0
-111.14 -3182.72 768.18 0 255 0
-167.18 -3190.01 770.52 0 255 0
-223.95 -3202.60 774.39 0 255 0
-280.40 -3204.99 776.03 0 255 0
-364.81 -3201.86 777.32 0 255 0
-423.55 -3217.17 782.71 0 255 0
-481.64 -3222.75 786.00 0 255 0
-540.22 -3228.24 789.51 0 255 0
-569.72 -3231.06 791.39 0 255 0
-628.99 -3235.89 795.14 0 255 0
-688.50 -3239.16 798.78 0 255 0
-747.66 -3238.49 801.71 0 255 0
-777.26 -3237.51 803.11 0 255 0
-841.43 -3253.57 810.62 0 255 0
-899.51 -3243.55 811.91 0 255 0
-964.13 -3254.85 818.82 0 255 0
-1028.10 -3260.71 824.69 0 255 0
-1060.42 -3263.63 827.74 0 255 0
-1126.71 -3272.20 834.77 0 255 0
-1200.27 -3297.71 846.49 0 255 0
-1226.63 -3195.49 825.62 0 255 0
-1231.14 -3125.42 810.27 0 255 0
-1252.57 -3023.97 789.51 0 255 0
-1248.17 -2870.60 755.04 0 255 0
-1260.79 -2766.56 733.35 0 255 0
-1262.22 -2646.30 707.21 0 255 0
-1264.17 -2591.94 695.60 255 255 0
-1273.25 -2498.89 676.49 255 255 0
-1286.09 -2418.78 660.78 255 255 0
-1033.64 -1686.75 477.18 255 255 0
-1056.63 -1642.73 471.14 255 255 0
-1067.73 -1613.17 466.63 255 255 0
-1079.15 -1584.99 462.52 255 255 0
-1067.50 -1524.54 448.92 255 255 0
-1007.37 -1386.53 413.40 255 255 0
-853.57 -1132.72 342.11 255 128 0
-858.95 -1089.59 334.67 255 128 0
-865.98 -1059.96 330.16 255 128 0
-870.91 -1010.78 321.83 255 128 0
-871.53 -985.08 317.26 255 128 0
-871.74 -959.75 312.75 255 128 0
-873.15 -936.34 308.82 255 128 0
-878.22 -909.42 304.95 255 128 0
-865.41 -857.85 293.93 255 128 0
-880.40 -850.19 295.22 255 128 0
-880.03 -835.12 292.64 255 128 0
-882.65 -815.94 289.94 255 128 0
-885.34 -790.21 286.25 255 128 0
-888.13 -765.29 282.79 255 128 0
-890.52 -740.65 279.39 255 128 0
-890.91 -715.04 287.29 255 128 0
-903.02 -686.69 273.65 255 128 0
-905.65 -664.07 270.89 255 128 0
-908.18 -641.85 268.25 255 128 0
-908.50 -612.83 264.34 255 128 0
-910.78 -585.85 261.22 255 128 0
-912.60 -564.75 258.87 255 128 0
-913.38 -538.05 255.71 255 128 0
-911.57 -513.65 265.28 255 128 0
-915.64 -488.91 263.16 255 128 0
-922.47 -470.02 249.73 255 128 0
-939.58 -468.46 253.24 255 128 0
-992.36 -473.33 265.20 255 128 0
-1054.43 -480.53 279.51 255 128 0
-1116.59 -485.51 293.69 255 128 0
-1187.77 -491.99 310.11 255 128 0
-1242.94 -502.18 323.36 255 128 0
-1009.96 -382.63 260.51 255 128 0
-1034.07 -376.37 265.44 255 128 0
-1112.64 -383.11 283.85 255 128 0
-1165.33 -384.26 295.98 255 128 0
-1218.71 -384.26 308.23 255 128 0
-1234.48 -359.86 310.17 255 128 0
-1164.87 -323.05 291.58 255 128 0
-1067.95 -261.33 265.20 255 128 0
-1070.85 -237.41 264.58 255 128 0
-1072.61 -213.36 263.80 255 128 0
-1074.26 -194.26 263.33 255 128 0
-1075.76 -180.02 263.09 255 128 0
-1081.92 -161.68 263.87 255 128 0
-1085.36 -138.07 263.91 255 128 0
-1160.98 -132.28 281.85 255 128 0
-1199.88 -115.54 290.76 255 128 0
-1127.16 -93.67 272.82 255 128 0
-1122.97 -78.53 271.53 255 128 0
-1127.29 -64.01 272.36 255 128 0
-1126.64 -34.42 271.89 255 128 0
-1132.90 -14.82 273.29 255 128 0
-1150.88 15.07 277.63 255 128 0
-1151.90 35.20 277.98 255 128 0
-1153.75 60.47 278.69 255 128 0
-1155.94 80.83 279.51 255 128 0
-1088.50 95.23 263.56 255 128 0
-1039.12 109.22 252.03 255 128 0
-1136.62 139.56 276.22 255 128 0
-1161.58 163.26 282.95 255 128 0
-1156.64 188.37 282.67 255 128 0
-1141.93 206.53 279.92 255 128 0
-1084.99 210.90 266.61 255 128 0
-1101.11 234.05 271.53 255 128 0
-1248.42 288.22 309.05 255 128 0
-1251.65 312.09 311.16 255 128 0
-1254.88 342.13 313.74 255 128 0
-1237.35 366.52 311.28 255 128 0
-1172.82 369.79 296.62 255 128 0
-1112.71 372.31 283.02 255 128 0
-1056.11 373.99 270.25 255 128 0
-1029.51 374.71 264.27 255 128 0
-984.69 377.99 254.42 255 128 0
-943.70 381.28 245.51 255 128 0
-919.34 385.51 240.47 255 128 0
-941.42 409.34 247.62 255 128 0
-954.47 434.98 253.01 255 128 0
-922.17 439.85 246.44 255 128 0
-921.99 454.68 247.97 255 128 0
-924.36 481.19 251.37 255 128 0
-925.28 491.98 252.78 255 128 0
-1268.64 710.47 350.73 255 128 0
-1269.68 740.48 354.54 255 255 0
-1288.23 774.05 362.52 255 255 0
-1283.78 809.99 366.15 255 255 0
-1281.21 840.03 369.55 255 255 0
-1283.44 882.08 375.65 255 255 0
-1284.66 907.93 379.46 255 255 0
-1281.93 931.38 382.21 255 255 0
-1024.03 771.66 309.29 255 128 0
-1016.51 787.10 310.11 255 128 0
-1166.46 944.58 362.05 255 255 0
-1102.66 908.97 344.69 255 128 0
-1077.76 920.50 341.88 255 128 0
-1063.72 941.10 342.58 255 128 0
-1037.29 942.16 338.01 255 128 0
-992.15 941.51 329.92 255 128 0
-971.31 937.98 325.70 255 128 0
-936.23 936.23 319.37 255 128 0
-913.06 937.23 315.62 255 128 0
-864.12 934.76 307.06 255 128 0
-841.39 934.46 303.31 255 128 0
-815.31 929.66 298.27 255 128 0
-785.61 927.98 293.28 255 128 0
-764.27 927.14 289.82 255 128 0
-742.65 925.29 286.19 255 128 0
-714.18 922.36 281.38 255 128 0
-693.85 920.77 278.10 255 128 0
-667.39 918.59 273.88 255 128 0
-631.78 927.88 270.77 255 128 0
-612.74 925.75 267.78 255 128 0
-588.92 924.41 264.38 255 128 0
-559.79 922.48 260.28 255 128 0
-537.49 921.61 257.35 255 128 0
-510.27 920.48 253.87 255 128 0
-488.10 917.98 250.78 255 128 0
-461.62 915.81 247.38 255 128 0
-435.82 913.65 244.18 255 128 0
-410.85 912.03 241.29 255 128 0
-386.37 910.17 238.51 255 128 0
-362.75 909.22 236.13 255 128 0
-339.55 908.10 233.86 255 128 0
-312.02 906.11 231.16 255 128 0
-285.41 905.16 228.94 255 128 0
-258.90 902.82 226.55 255 128 0
-229.24 902.63 224.64 255 128 0
-208.40 902.66 223.47 255 128 0
-183.83 903.52 222.41 255 128 0
-163.56 904.46 221.71 255 128 0
-132.16 858.47 209.51 255 128 0
-113.32 860.65 209.40 255 128 0
-98.16 861.56 209.16 255 128 0
-86.61 899.39 217.95 255 128 0
-10.59 485.45 117.13 255 64 0
1255.41 444.57 321.25 255 128 0
846.73 -156.93 216.55 255 128 0
1017.43 -431.88 266.61 255 128 0
880.77 -529.22 247.85 255 128 0
1120.91 -1661.81 483.51 255 255 0
983.98 -2017.45 541.43 255 255 0
1758.51 -4245.42 1108.41 0 255 0
1516.94 -4405.52 1123.89 0 255 0
1423.30 -4380.47 1110.99 0 255 0
1184.14 -4578.72 1140.77 0 255 0
550.23 -3120.49 764.31 0 255 0
358.48 -3146.32 763.84 0 255 0
303.93 -3156.45 764.89 0 255 0
110.63 -3168.15 764.66 0 255 0
55.39 -3173.49 765.60 0 255 0
-83.31 -3181.63 767.71 0 255 0
-138.91 -3181.63 768.18 0 255 0
-392.85 -3199.52 777.56 0 255 0
-600.02 -3237.43 794.20 0 255 0
-657.21 -3230.28 795.14 0 255 0
-807.13 -3237.21 804.76 0 255 0
-870.80 -3249.86 811.56 0 255 0
-1093.79 -3269.00 831.49 0 255 0
-1162.68 -3283.32 840.16 0 255 0
-1235.24 -3057.32 795.38 0 255 0
-1253.08 -2952.08 773.57 0 255 0
-1257.36 -2824.08 745.67 0 255 0
-1267.66 -2542.53 685.29 255 255 0
-1280.64 -2460.09 668.99 255 255 0
-1030.65 -1715.28 482.69 255 255 0
-1042.65 -1668.59 474.60 255 255 0
-1007.66 -1412.68 418.56 255 255 0
-854.06 -1154.19 346.34 255 128 0
-868.56 -1035.11 325.94 255 128 0
-873.93 -920.93 306.24 255 128 0
-878.28 -893.75 302.25 255 128 0
-963.73 -470.04 258.64 255 128 0
-1022.89 -476.98 272.24 255 128 0
-1090.11 -485.35 287.83 255 128 0
-1262.20 -497.19 327.23 255 128 0
-1080.39 -382.59 276.46 255 128 0
-1241.54 -379.58 313.16 255 128 0
-1124.64 -49.10 271.53 255 128 0
-1139.00 -7.40 292.30 255 128 0
-1141.15 84.80 287.79 255 128 0
-1058.34 215.32 260.51 255 128 0
-1159.30 257.01 286.42 255 128 0
-1255.92 360.13 315.15 255 128 0
-1185.68 362.50 311.71 255 128 0
-1135.34 368.89 287.95 255 128 0
-1006.62 376.36 259.22 255 128 0
-959.65 378.02 248.79 255 128 0
-952.02 423.87 251.37 255 128 0
-945.36 440.83 251.60 255 128 0
-926.08 502.82 254.18 255 128 0
-1283.84 865.96 373.54 255 255 0
-1272.58 941.66 381.86 255 255 0
-1176.18 935.58 362.52 255 255 0
-1074.96 901.99 338.48 255 128 0
-1077.76 936.88 344.46 255 128 0
-956.15 939.61 323.36 255 128 0
-889.32 937.15 311.63 255 128 0
-686.66 927.97 278.45 255 128 0
-661.61 927.54 274.82 255 128 0
-621.84 957.56 275.40 255 128 0
-578.51 925.81 263.33 255 128 0
-477.60 917.47 249.49 255 128 0
-241.79 902.37 225.34 255 128 0
-147.45 881.13 215.49 255 128 0
-92.52 960.87 232.84 255 128 0
96.75 578.15 141.40 255 128 0
386.46 888.78 233.78 255 128 0
393.98 486.53 151.01 255 128 0
637.68 759.95 239.29 255 128 0
748.68 722.99 261.76 255 128 0
815.62 734.39 264.73 255 128 0
988.25 859.07 315.85 255 128 0
1038.15 855.79 324.53 255 128 0
1056.74 840.57 325.70 255 128 0
1073.71 794.50 322.18 255 128 0
1161.03 812.96 341.88 255 128 0
1206.47 813.77 351.03 255 128 0
719.14 374.36 195.56 255 128 0
1247.65 460.29 320.78 255 128 0
1249.98 406.14 317.02 255 128 0
909.37 103.61 220.77 255 128 0
881.90 69.41 213.38 255 128 0
1174.63 20.50 283.38 255 128 0
1251.12 0.00 301.78 255 128 0
1347.15 -23.51 325.00 255 128 0
911.47 -39.80 220.07 255 128 0
1027.59 -126.17 249.73 255 128 0
1010.79 -142.06 246.21 255 128 0
915.98 -145.08 223.70 255 128 0
914.58 -245.06 228.39 255 128 0
946.61 -271.44 237.53 255 128 0
1221.51 -432.56 312.57 255 128 0
1149.12 -429.64 295.92 255 128 0
1089.89 -429.32 282.56 255 128 0
879.85 -429.13 236.13 255 128 0
957.13 -598.08 272.24 255 128 0
1035.82 -672.67 297.91 255 128 0
1044.01 -772.53 313.27 255 128 0
977.15 -749.80 297.09 255 128 0
966.24 -839.94 308.82 255 128 0
956.15 -939.61 323.36 255 128 0
1113.35 -1132.96 383.15 255 255 0
1089.55 -1210.06 392.76 255 255 0
919.98 -1243.28 373.07 255 255 0
927.49 -1300.30 385.26 255 255 0
1036.99 -1659.53 472.02 255 255 0
956.91 -1691.33 468.74 255 255 0
963.43 -1774.41 487.03 255 255 0
960.53 -2059.87 548.23 255 255 0
1669.36 -4237.93 1098.68 0 255 0
1615.06 -4319.68 1112.40 0 255 0
1390.28 -4409.42 1115.22 0 255 0
1278.80 -4459.72 1119.08 0 255 0
495.68 -3129.61 764.31 0 255 0
440.78 -3136.34 763.96 0 255 0
248.95 -3163.22 765.36 0 255 0
193.94 -3170.96 766.30 0 255 0
0.00 -3175.91 766.07 0 255 0
-195.72 -3200.07 773.33 0 255 0
-252.15 -3203.92 775.21 0 255 0
-308.59 -3204.84 776.62 0 255 0
-451.95 -3215.76 783.30 0 255 0
-511.88 -3231.87 789.28 0 255 0
-719.27 -3244.42 801.59 0 255 0
-931.13 -3247.25 814.84 0 255 0
-995.91 -3257.47 821.64 0 255 0
-1217.26 -3255.70 838.40 0 255 0
-1259.42 -2700.83 718.82 0 255 0
-1289.52 -2375.00 651.87 255 255 0
-852.77 -1111.35 337.89 255 128 0
-893.97 -698.45 273.65 255 128 0
-1158.37 -491.70 303.54 255 128 0
-1074.33 -277.84 267.67 255 128 0
-1202.69 -126.41 291.70 255 128 0
-1276.46 782.21 361.11 255 255 0
-646.80 923.72 272.00 255 128 0
287.58 576.80 155.46 255 128 0
1231.09 600.44 330.39 255 128 0
940.45 -468.89 253.48 255 128 0
1038.87 -1216.36 385.85 255 255 0
1351.75 -4421.38 1115.22 0 255 0
-336.65 -3202.99 776.85 0 255 0
-921.60 464.55 259.51 255 128 0
-1008.86 940.77 332.74 255 128 0
-70.35 1006.12 243.28 255 128 0
-73.26 930.84 225.22 255 128 0
-55.67 980.25 236.83 255 128 0
760.02 714.96 262.41 255 128 0
-1308.31 -2360.25 650.93 255 255 0
-918.33 -478.05 249.73 255 128 0
-1076.09 -288.34 268.72 255 128 0
-1078.17 371.24 275.05 255 128 0
729.31 371.60 197.44 255 128 0
12.36 485.02 134.50 255 76 0
113.50 807.56 213.49 255 128 0
139.47 811.93 215.67 255 128 0
164.48 808.45 215.98 255 128 0
187.25 810.93 217.88 255 128 0
208.88 807.63 218.39 255 128 0
236.31 810.76 221.09 255 128 0
263.13 809.78 222.90 255 128 0
289.35 817.04 226.91 255 128 0
311.57 811.60 227.59 255 128 0
343.55 829.41 235.02 255 128 0
364.77 809.69 232.48 255 128 0
387.30 811.85 235.48 255 128 0
413.29 811.07 238.31 255 128 0
439.84 810.04 241.30 255 128 0
382.05 675.27 203.11 255 128 0
322.74 521.55 160.56 255 128 0
331.21 510.05 159.21 255 128 0
342.40 493.60 157.27 255 128 0
355.03 479.80 156.25 255 128 0
365.01 467.15 155.20 255 128 0
386.84 473.45 160.05 255 128 0
642.53 745.69 257.68 255 128 0
661.45 734.58 258.78 255 128 0
685.05 728.22 261.73 255 128 0
709.98 728.79 266.35 255 128 0
733.24 726.85 270.28 255 128 0
787.34 715.15 278.45 255 128 0
810.76 717.30 283.39 255 128 0
882.74 753.93 303.90 255 128 0
956.23 788.25 324.41 255 128 0
991.04 788.31 331.50 255 128 0
1037.25 788.74 341.13 255 128 0
1080.83 785.27 349.74 255 128 0
1123.69 786.82 359.11 255 128 0
1174.15 791.97 370.76 255 128 0
1192.30 781.68 373.23 255 128 0
1196.92 762.52 371.52 255 128 0
1203.45 737.47 369.49 255 128 0
1206.33 717.70 367.46 255 128 0
1211.86 685.64 364.51 255 128 0
706.02 379.36 209.82 255 128 0
1223.56 590.19 355.63 255 128 0
1224.84 571.15 353.79 255 128 0
1234.62 549.69 353.79 255 128 0
1228.48 508.85 348.09 255 128 0
1231.42 491.29 347.08 255 128 0
1239.87 463.57 346.53 255 128 0
1238.89 432.66 343.53 255 128 0
1245.80 410.81 343.41 255 128 0
1243.08 385.99 340.75 255 128 0
1244.75 362.81 339.42 255 128 0
824.00 163.92 219.95 255 128 0
908.33 107.48 239.45 255 128 0
929.56 93.60 244.58 255 128 0
846.15 74.03 222.35 255 128 0
857.37 67.48 225.14 255 128 0
1225.34 74.95 321.37 255 128 0
1099.37 48.00 288.07 255 128 0
1100.86 33.63 288.32 255 128 0
1260.48 11.00 329.98 255 128 0
1285.19 0.00 336.44 255 128 0
1234.70 -21.55 323.27 255 128 0
891.25 -35.02 233.50 255 128 0
903.76 -47.36 236.91 255 128 0
991.32 -86.75 260.51 255 128 0
1002.51 -114.22 264.14 255 128 0
1047.84 -137.95 276.67 255 128 0
885.44 -148.17 235.02 255 128 0
848.38 -149.59 225.52 255 128 0
847.76 -168.63 226.28 255 128 0
841.50 -186.57 225.65 255 128 0
843.68 -210.37 227.63 255 128 0
1005.86 -278.95 273.26 255 128 0
1303.37 -392.28 356.32 255 128 0
1294.45 -408.14 355.31 255 128 0
1186.21 -396.90 327.45 255 128 0
1150.69 -396.21 318.59 255 128 0
1088.14 -396.05 303.14 255 128 0
1038.09 -393.26 290.60 255 128 0
974.99 -393.92 275.28 255 128 0
934.58 -396.70 265.79 255 128 0
912.89 -396.94 260.59 255 128 0
884.91 -398.58 254.07 255 128 0
867.90 -413.98 251.73 255 128 0
868.83 -437.93 254.71 255 128 0
881.80 -463.97 260.85 255 128 0
890.33 -488.46 265.85 255 128 0
896.16 -512.21 270.22 255 128 0
888.93 -534.12 271.48 255 128 0
976.28 -610.05 301.37 255 128 0
1030.43 -662.82 320.74 255 128 0
1058.76 -714.15 334.33 255 128 0
1050.63 -749.40 337.83 255 128 0
996.56 -737.42 324.54 255 128 0
969.06 -743.58 319.77 255 128 0
930.37 -753.40 313.40 255 128 0
929.30 -779.78 317.57 255 128 0
984.55 -855.86 341.51 255 128 0
963.89 -860.27 338.21 255 128 0
937.56 -859.11 332.90 255 128 0
916.36 -862.02 329.35 255 128 0
1220.61 -1199.49 448.00 255 255 0
1187.28 -1208.19 443.44 255 255 0
1163.93 -1205.28 438.63 255 255 0
1116.01 -1207.28 430.40 255 255 0
1084.78 -1215.39 426.47 255 255 0
1062.44 -1222.20 423.94 255 255 0
1029.76 -1227.22 419.38 255 255 0
987.61 -1230.50 413.05 255 255 0
938.07 -1233.61 405.71 255 255 0
923.28 -1247.74 406.34 255 255 0
927.49 -1300.29 418.11 255 255 0
933.58 -1333.29 426.09 255 255 0
1021.88 -1515.00 478.39 255 255 0
941.54 -1449.85 452.56 255 255 0
931.73 -1491.08 460.28 255 255 0
942.94 -1569.31 479.27 255 255 0
947.86 -1609.15 488.90 255 255 0
995.85 -1760.17 529.42 255 255 0
1015.99 -1871.22 557.40 255 255 0
999.26 -1919.56 566.52 255 255 0
986.01 -1956.22 573.48 255 255 0
983.23 -2038.48 592.48 255 255 0
967.32 -2074.42 599.19 255 255 0
1796.04 -4231.20 1203.31 0 255 0
1718.11 -4252.48 1200.65 0 255 0
1677.93 -4259.66 1198.50 0 255 0
1625.86 -4348.55 1215.34 0 255 0
1563.28 -4414.57 1225.98 0 255 0
1474.64 -4407.23 1216.61 0 255 0
1392.41 -4416.15 1212.18 0 255 0
1355.66 -4434.15 1213.82 0 255 0
1221.36 -4558.19 1235.35 0 255 0
581.07 -3135.16 834.71 0 255 0
524.11 -3131.94 831.29 0 255 0
469.15 -3139.18 830.91 0 255 0
413.92 -3144.01 830.15 0 255 0
386.82 -3150.38 830.91 0 255 0
332.54 -3163.87 832.81 0 255 0
276.80 -3163.89 831.42 0 255 0
222.89 -3187.54 836.48 0 255 0
166.67 -3180.32 833.70 0 255 0
138.72 -3177.30 832.56 0 255 0
83.45 -3186.98 834.58 0 255 0
27.84 -3189.88 835.09 0 255 0
-27.88 -3194.24 836.23 0 255 0
-83.69 -3196.16 836.99 0 255 0
-111.62 -3196.28 837.24 0 255 0
-167.94 -3204.47 840.03 0 255 0
-224.55 -3211.19 842.69 0 255 0
-282.03 -3223.64 847.12 0 255 0
-310.99 -3229.73 849.40 0 255 0
-368.68 -3235.82 852.56 0 255 0
-484.24 -3240.12 857.63 0 255 0
-543.03 -3245.01 861.30 0 255 0
-603.10 -3254.06 866.37 0 255 0
-630.65 -3244.40 865.23 0 255 0
-692.30 -3257.03 871.68 0 255 0
-749.80 -3247.75 872.57 0 255 0
-816.55 -3275.00 883.59 0 255 0
-876.21 -3270.06 886.25 0 255 0
-905.75 -3266.02 887.26 0 255 0
-968.79 -3270.59 892.96 0 255 0
-1038.52 -3293.78 904.10 0 255 0
-1103.52 -3298.09 910.43 0 255 0
-1173.51 -3313.89 920.31 0 255 0
-1196.43 -3287.16 915.75 0 255 0
-1211.67 -3156.50 885.11 0 255 0
-1229.61 -3043.38 859.27 0 255 0
-1232.26 -2903.02 825.59 0 255 0
-1239.85 -2784.74 797.99 0 255 0
-1238.83 -2718.36 782.03 0 255 0
-1262.84 -2618.12 760.95 0 255 0
-1263.88 -2534.95 741.51 255 255 0
-1274.87 -2449.00 722.77 255 255 0
-1287.41 -2371.12 706.31 255 255 0
